-34.56637753270647,93.81567222237169,0.2135787984343217
-101.64709176739287,-568.0861144790491,-0.4411912481479715
14.064249023450316,-10.651456145860298,-0.07885149654171247
293.03361002653776,-31.515041218598,-0.7001504815912937
71.09786646123031,-345.5246905488325,-1.0395483314995393
173.31507331913616,106.64852641830396,-0.6322641580721681
-94.5128982152314,11.18189577754952,-0.24310644233432796
230.58439432696431,404.8270712937989,0.49049691401644546
185.23556007942804,-154.60769582921105,0.1447196342809839
1.6100093221393754,-7.877787960617276,0.23282221847534496
-218.60130628106984,27.346662355519697,-0.3993055360668135
38.74049265523515,184.8803015585865,0.008552006146165891
119.20761633742534,185.64523625251576,1.350761050280622
-3.4152347446224076,210.1259401143254,-0.6663003854135241
-579.5123071085297,102.51616332499971,-0.3391542459701861
-77.58334753249942,193.61088697756216,-0.8904708373502962
-73.37414054354295,-69.38461552396502,0.3826255214188521
-316.0768092968428,65.59005352286988,-0.3643214134761909
286.4488162516467,326.733848292489,-0.16644594587370962
52.39191279824873,10.833794850573799,0.033593759600405046
209.94090886550595,-187.4671595704057,0.2570157640038097
-355.92692627094505,-195.12492765874123,0.21862817239349078
128.83948914486612,-226.04098904855815,0.4984896201247217
22.719547493789566,49.32241112991845,1.2312916576798856
-282.776253210947,177.96804244289544,-0.19078551763303725
-329.3484338902833,-314.37786244352395,-0.4653409149637647
188.65790939067304,-34.74394970212492,-0.4371520878971264
634.5282587508235,-293.75680007021725,0.5712061520266337
160.74179009807338,200.49479384591748,-0.8341387996789051
-157.919323513622,113.61908117285775,-0.03621183376934842
177.7327934632184,220.41412135416158,0.4431199583884696
67.17950328561359,-180.8737650292762,-0.3072513123614911
326.10202348422445,165.8773256899287,0.55102499508177
198.01209794467692,311.7224986235247,1.004344825464842
-84.05140253339475,-193.53676151798032,0.7152469215062449
-62.95817916851616,277.9333495678352,0.14206250628473707
170.70963036964585,-114.3316380957085,-0.35001306590961445
-18.039230287379983,17.217195032431228,0.022546994834978618
-156.42491496126326,52.69847619041603,-0.667015750076835
2.5732485877056774,358.7409096068586,0.4090870533031781
-22.806438033745415,-80.90380684774033,0.43398464491090905
-20.904405176596,90.98319469862139,-0.3237022889743863
70.90784083295696,150.1176114186543,0.32354895115645516
78.70185429874877,-336.33327193695897,-0.45873260988499637
-81.82552503188577,-85.27908732881082,-0.3781784068526611
55.735129247152805,363.40033636956764,0.544659317832443
67.49366058947768,-288.3204428586385,-0.003520981135578598
-101.73797000978506,-87.67269238800282,-1.4320745742054075
120.40736189298417,268.6197513104609,-0.5815754948405388
363.3085082484814,244.55655803325627,-0.5570469414228122
-21.122090027235352,-225.5209561742905,-0.5145373735105252
-201.50611240375986,210.28752635233005,0.040366604364910935
2.076737242948123,-105.77473666506751,0.876531557549899
202.07755538185617,-31.759792097005324,0.8746214393867595
2.7516931391688155,58.67308226663886,-0.16982504012029115
-68.01414920292531,35.22579725292051,-0.20449132122460795
-55.25475595927557,-144.96450287327497,0.4812383138696134
62.37497019716515,-154.6007865788786,-0.7894730425008325
125.78875189626706,120.84475584711245,-0.029729468558388344
-1.3953940863339998,45.95811633011738,-0.27944650687140266
-263.41048758841146,221.08280757267366,0.09064334187935476
-226.1802877405841,99.11474734668442,0.3795887035497351
-133.53137730184037,-55.18243067602147,-0.3480845550632755
-23.01556240520975,111.9617834011602,-0.1870027263792389
229.5979921590342,-118.77255309168942,0.011785886703604207
-85.0321465582917,-142.6912187293709,1.2350376165619363
85.12877087564121,-239.98831366261135,-0.1610802225296813
-452.2503515371612,195.32327329609922,-0.47179446507926037
37.00183462229686,475.2673411927949,0.21861519475759467
-19.03217446327477,16.86158151078784,0.9657714985547963
-228.24700771748132,-411.7499516238643,-0.18565229577022632
269.6467163020808,342.53710820912744,0.16119990697314857
-262.4240780090168,169.90583275056156,0.5115117382146301
-216.8602713955208,82.01168346781591,0.23732760682041715
-60.59641586188984,-26.502599785390128,-0.07808997275643932
-80.25140139209103,142.24186526133244,-0.1338920099907758
-195.68386130545693,-231.70111478784548,-0.7919286187694186
-231.17726677682845,260.28014072790097,-0.028757594226253385
-195.10129043973913,6.2237862367752435,0.44274028939948373
282.378769317332,38.305292278694324,0.9414348534148185
-12.820480353481608,63.3126465668834,-0.7714427989618982
69.1013384714725,-20.13794416228732,0.3219742992440211
-22.53211218284439,141.10345261912764,-0.02004908564269953
267.1014197034595,-57.0306948237976,0.3739318057607628
62.32994890479468,177.80687303506483,-0.11124998711268796
-133.94968348714156,67.84975572420954,0.634301683745607
31.533042073718715,184.5042207936587,0.2751116622206176
-6.821614575482505,-202.1592851932714,0.5132332942913459
329.05734616072243,-16.126509793818396,-0.007899609023167716
290.5177706941176,195.2556304800546,-0.40413261456891675
-44.59644450186603,103.33854937310613,-0.5068446572358588
-174.01567837365133,-345.34203570358613,-0.40040867266180263
24.988150703387806,16.39780798846892,-0.14660052908793444
197.67103091673673,61.91476736488315,-0.7676757013629578
-34.574384382244475,-156.43533787740913,1.147478385093877
61.796766176188775,-74.8124017497598,1.1331236532365945
136.54753099493254,-65.6946781968127,-0.7975330690416425
-394.2421526262561,58.67175533258834,0.2055116504137879
-83.69179421166673,-110.3096126269756,0.2308032801951429
160.12285207415934,-101.98759484407245,0.5951481176000428
54.21211464792497,-18.796795103150945,0.10392176721229873
202.54110143445382,-220.96871587121632,0.3304999197448925
271.9797741667309,274.89174950797593,-0.519904730186733
-364.3417911352481,-10.570933034858138,0.2753126841365893
122.25916324647864,29.6487008242172,0.5755710908275171
266.2728630718648,-242.39315293258645,-0.16016634480578848
99.4857349537369,12.680466649183938,-0.30340965336762127
342.75183982981383,-159.46714286599118,0.8840266662048886
-101.54954397514358,85.98819711953412,0.3346280789019633
460.64506404315546,-94.3437728376086,-0.5660706356766573
-208.5525871894083,447.09421053990116,0.30444490628826126
112.34348275747581,209.4510562893027,-0.27221005004388815
-34.22965372816808,-96.98938004398214,0.07829291765775864
-63.59453796143312,-60.22179947082053,-0.22871928575363715
-166.23532239029825,129.8333534692713,0.5457898811158032
99.15478370318013,222.71423009040933,0.6194725174380304
283.99681709845794,5.558060290788723,-0.08731522348346557
82.14540427645764,-180.68297586094536,-0.19489772298007899
-107.07989342421958,54.17806002110319,-0.3878272384891458
57.97072177730039,176.1713670007839,0.42609753116745136
-377.9693859209829,-130.82449732159063,0.679698636795258
319.19504627826973,335.7830655447857,0.09613403525674831
178.35112915156714,-228.62785454285333,0.13889280523576797
-504.8480875531052,388.536624289159,0.5926591143683252
212.29265987567265,-60.24787922804504,0.32106445308824433
242.8788434168836,79.85239139290438,-0.1566075580872557
122.40680654957295,190.4860530800591,1.0521057653785126
103.0144416242987,-333.752918692386,0.42177605149356673
463.92238448952867,133.70348420571042,-0.9525656515071579
-12.985287882281337,222.5499254981795,0.7388177611595536
76.27216022796411,-172.49665721184004,-0.16321695482226398
6.72327825396693,1.2440226593993957,0.8985886360732053
254.28567529497678,-136.68154966150735,0.508202130381639
-167.73453093685873,-535.8159469463462,0.5488267047196783
-164.90540552419648,-125.79247168357004,-0.27077860154676187
-102.44691219014955,61.108495410792074,0.2579151980668534
-126.01926385810411,-185.8399850639711,-0.6136402203753305
24.83025941549354,-143.83897922868852,-0.04965131273324525
-2.5749925524697477,88.76382837034082,0.04232316602562561
106.40282199918761,-272.36878070388025,0.41852091486396875
-92.32927156991644,50.549431112473265,0.06739918311884752
-53.8397653792969,-174.7448415752365,0.659530461119776
-19.83683924935905,105.70305759049351,0.8748854224681099
-33.02402175936936,-281.8017200745634,0.0017442482408910652
-319.863030405523,374.9110910336451,-0.49235115362201926
87.78481845669336,-166.29168135024108,0.12565450603475473
-179.8387391493472,348.2909447280042,-0.26120567860156085
-105.19828640868387,-8.062903482232723,0.36883793656886876
-194.1151020639007,-25.553665013004828,0.37731221631211026
-333.08256252251874,277.8545881725671,0.2336136427569344
111.97744895602564,29.922741334241547,-0.04398976735023919
84.83536462391142,-202.83442779853615,-0.6728037405251026
99.67839531913638,454.3150428960754,0.5736385914912041
-77.89186090810392,197.7218257940467,-0.6045617019505626
-75.90405988152128,-315.50218862055607,0.2208267844084094
206.1216628399869,181.46450111253955,-0.022125217677131003
-260.2492018113256,112.85106286442412,-0.10283128966875411
43.10207656702658,-82.27034266124596,0.6330292915945115
-211.71773258520324,-124.53051956175574,-0.5030032303557264
11.729943867871894,-44.86356679622268,0.38648282071336265
-401.243505482078,360.38732600267497,-0.11268516807097637
13.624392499621047,58.76077101677695,-0.020971291819959985
-133.7895129683951,-47.293809172766636,1.0170524571387451
169.8700219564621,-123.87746222846651,0.36397085624197556
-40.34545257994194,162.9239275379997,0.5779377282393736
-167.9021868298261,-432.88928242473366,0.2000101620244895
-27.724391075464517,-25.127605538885785,-0.30729817812249244
-8.67855448803015,-431.51742351890175,0.25671780393065635
-168.28782172404823,-45.172653255796796,0.3083537722334571
-23.547242786926503,-130.96421170333784,0.223438906866188
-217.35427848752798,166.83880895955022,-0.32907443538014486
431.06897546533105,252.81378685607626,-0.10494577960262136
-45.05534979616399,-143.78388716742273,-0.06310862956149334
140.8513346310746,-110.31673569193208,0.8460811299383706
-271.3226139452978,-29.494128343229995,-0.615622221100894
206.7439724430702,149.58202629001764,-0.5530081760489911
32.309345549212345,34.05395527971915,-0.4809613975078128
-130.82596933989404,-176.0619825484814,-0.586774312757886
-0.7765146160982577,-177.23069923745277,0.4820168596831496
-145.38916259936354,187.32525759958028,-0.12144440566434457
-67.94745439640297,14.8814266190153,0.011320980851812714
113.17389612312935,66.16917641126328,-0.4302008347830557
75.24451698599336,230.67566944067585,-1.311942038686057
306.30015545947634,83.66172796109723,-0.2817424710856081
-61.98759822306291,-197.01033200333654,0.1764312825094474
300.6784161930147,297.23060057127583,-0.04406149563431796
-61.580167594176174,-160.8300945151592,-0.6422069334712543
188.09661316160157,391.0131253320002,-0.5565891607595019
-233.19749046233085,-14.911992308191039,-0.02275602461297773
53.82346223360555,120.7614801130426,-0.20547287611245976
479.3933570598799,117.55717464281621,-0.4780614348960466
14.164922532408369,-377.8792041773935,0.2651539294684584
74.15375214041389,-120.40032540315786,0.05218218501186045
208.95471125654757,417.6908171120625,0.4826100618567738
140.50889594938428,-71.69214785976857,-0.4489762676943049
-295.86545879935863,392.5233299555583,0.9273170670267571
-16.700781025656198,17.51837421015167,-0.25929065762806647
221.07557112139992,257.3856442727294,0.45228113024672156
-143.8264716829421,4.146336085005939,-0.47013505466899613
139.3277827069683,-354.6648814181594,-0.5765072897270851
-17.247321553640475,-17.802669159488364,-0.1526643969719988
115.04912325159187,-199.62385504608548,0.8069291909529722
140.8815043381217,-118.59457205094326,-0.09687413800900907
-112.8825553798522,-65.04559987633117,-0.3936958087089714
-128.4458599018974,-181.1337874653957,0.14684308216996927
-139.78898633050088,157.9591565852681,-0.7842080081263748
-114.15276503870166,122.86915290423744,0.9883757432150878
275.09947880565016,434.57971574123565,-0.3159417573924192
380.7716454314323,105.55201205815581,-0.47020653389555483
188.34104228897888,185.59053093955802,-0.2479744142690617
-268.13067424543493,-199.90816615474796,0.7966332785134738
58.658771529848345,-247.98492294667955,0.37917626847848657
70.53406138614096,42.15308850110496,0.47507062157747404
-138.09128725120837,-73.73750194368604,-0.23792891707765276
604.0904640993019,465.6435236141804,0.29662248237538646
-41.04385690060067,42.4971948206317,0.027039277665655836
-113.19392797876667,217.18070935415113,0.4809424091614069
150.0254260665112,-132.0449810316556,-0.9588084470706333
-355.3350772333282,-353.2609211291466,-0.1804609988445918
-308.4255272040656,-304.6559713984005,0.17568586417457369
206.6550395504596,282.9565525308519,0.18234972611090314
396.9848884537355,261.0357437991316,-0.374440990121385
103.8900921602088,384.67374044049143,0.9028040095227103
146.70951466610273,-55.77371720688418,-0.6341638363373456
-141.39784577793034,-3.6744080488626087,-0.22919854262490497
-240.94961508794518,207.6771146162954,-0.22802595858291652
202.84920294488714,54.256212308200105,-0.09984515333376907
52.21334755816437,147.9556469184139,0.7558972911314279
192.25968662219995,378.5312749090732,0.13385147460292016
153.52262171873846,260.7769045691545,0.3703806204428603
-199.14266581490708,277.2116805621507,0.6718038153856066
-286.20783147710944,-66.989548572229,-0.16652331458349962
403.44659386814214,-406.8424285655984,0.003933737803024366
98.77622467992666,-175.42983496483473,0.047850204660165964
-208.87074271825972,164.18733470706633,0.07006680636726738
-143.57914283291134,-164.12350710089245,0.09282022098016836
-46.662499469699675,218.98380773920408,-0.7737286648470109
216.7774944497085,124.08020613615982,0.4132870097955888
232.28327627607248,-208.76293584865837,-0.46247602127550963
-181.23383491900347,-56.97419339521181,0.41119022791371673
33.429245282859206,-255.59466887549962,-0.30242343460818993
-228.7640456276547,-145.03383011041674,0.45317562566549724
68.42907170758751,194.87433929926922,-0.16274538528478294
-51.80457707356487,5.6044381280383995,0.36076824999991236
184.49580025633793,168.4446292087764,0.6458194257728297
31.101534043874125,115.84911415971193,-0.3157134496183671
103.90041973546434,-551.1499253302283,0.6574412286832064
-210.84534132632564,24.586127718412914,-0.5936618978875672
-75.34551928977838,26.542553656830076,0.49252822383051703
0.1019958654116069,111.9061868662051,-0.21157936636035093
-265.579643331459,-331.5284577251436,0.3638793655819607
138.97819066052023,-73.39286648621774,-0.45897245685630345
228.75516334896426,-212.6111622484235,-0.27342389220675245
311.01419943108283,389.89303569047354,0.057422818586893694
62.08746661701362,12.85446007335676,0.2127440464466024
152.40487496107932,-191.25346457440537,0.3986523961786662
229.89276465114153,-181.48189122213395,0.07139523128625574
22.737801816659168,-249.51333984791293,-0.1313857213908954
-19.52392574137017,-266.59719594007595,0.7644624071581233
-40.46602676952974,-144.06024337500494,-0.009009299506411715
-328.3334195880391,-35.93479400486557,-0.31999464876676725
-233.99454841220398,5.781906906140398,0.6112910379387319
542.233653728069,-264.82644322664555,-0.3776324840361977
107.676965629624,-249.2209099540949,0.3748777439378962
86.25736877194394,-151.92267293177804,-0.2552076633823593
400.93724720732195,-171.00004585199622,-0.2375646678739381
393.94794944694723,-75.18709948623132,0.047965858621666566
-64.0075053056163,33.91066406677004,0.08808814524193712
82.29873234820671,261.0495466381187,-1.1073941718771108
508.6780185005158,-117.63011645963142,-0.2337877319065007
-262.7417014120885,-207.741570982496,-0.5668777752910683
48.302697591139314,92.42259059540861,0.3154463304746617
-20.1082624695181,-57.838473151453066,-0.2353546511319614
30.085480461166682,-57.42574472967251,-0.9378533810186553
329.8244847958208,70.20724984454243,-0.6147514834575174
-146.24921440080948,-139.0453924005429,-0.5862047488572185
10.79765499208277,407.54266410479454,-1.3643133888643995
-134.2204952014911,265.6523984954579,0.22383590335465856
214.4659032263191,66.0862499069007,-0.20990391902459665
-44.68196066544107,109.01347232303272,-0.5842324187595299
-64.63845232730013,125.75468683708625,0.4582113666576589
121.97681908314775,93.90977254386289,0.05121799379350496
-59.90351486328528,-287.3557024401398,-0.13608445105793873
168.52783390891364,70.19295900166861,0.21061791387753456
-10.420538484978701,259.89225754677835,0.5663509717662928
-49.01366946722784,101.91321003479365,0.19171878610012896
-520.1751387747789,128.20878047841813,-0.4108566027888611
219.24956385593353,272.6812003691999,-0.4101045086458085
246.4802665291499,81.85831630684545,1.4098326481595873
349.0668866341703,-517.8792961828885,-0.6529573268968046
-269.1820030368544,117.87003160997011,-0.2667487384852914
-119.53217863911209,-199.87945615133106,0.3178641206257949
-221.58075365729798,-2.3648094516438825,-0.14979645119085583
-236.1712314137612,172.58074678401158,0.45051474613289
211.14126036991632,-178.9146777673192,-0.1007658521373672
182.2924277656355,267.50841070553093,-1.0333980583900424
-312.44791734090194,65.46895764229052,0.31346317512640076
-26.66459263543913,37.02715699440194,-0.5433281953548647
-38.138026990109346,185.3306000682187,0.21734203423738085
-154.72786534644044,278.8829208782252,0.1099100917306987
59.0360228680197,-251.74012488604106,-0.08666326040058062
8.39651970200198,219.88005520767845,0.9351435038896571
-100.81154016856276,-72.89051001037204,-0.397804542081649
185.30319254333708,-79.99465724478765,-1.615608286090161
-306.6627226075817,-30.21322409346614,0.07699399774389581
36.667487818491,-384.1613592578454,-0.2314569422385925
381.49311200855016,461.97266865344506,-0.5176733749626607
344.10261636229205,18.159202977226034,-0.4303439454689225
-9.554917233203193,-284.0698984340655,-0.5724582194955711
-347.6770457142283,269.0512003735379,0.5500388477758369
259.25829411530435,380.07721250281304,-0.0890996379218039
-217.06469818886026,-55.1543815217301,-0.5864523422525527
-14.226993305032748,-139.64075275084016,-0.44181573744960606
-35.03356323961307,238.76842082300635,-0.5059627572758824
-147.53727142790117,61.118879086932466,-0.2306120215427934
-235.13514411599834,239.90738283694392,-0.1610814313617042
-104.54295462855431,57.713711807723826,0.4762572200715059
-223.9289414321803,-117.31438079470686,-0.08611676614432083
-112.25402327799993,-52.40578816885798,0.29634992633840834
58.674049398721394,285.99810451206827,-0.009123979965059049
-96.6145285375885,77.16187264242336,0.3526611381264003
-193.4122562054925,-412.67506844498394,0.11046582798848038
89.65707067154501,217.81717190296922,-0.6562770658890635
3.637217388554226,-452.38669760361904,0.36019156526874596
26.24657875078834,143.16725984146424,-0.06848303055023434
4.428730315144085,-293.1314907290678,-0.4841767373769723
298.7651845860357,-110.54011528013991,0.06471387159031816
270.1388131236603,138.51253309823,0.5619239425779918
-186.79050788701988,-294.2309337535559,-0.1699701942848097
-122.32887207955837,-110.98818122528967,-0.0797946155885496
320.4494040356675,250.91317035937007,-0.29958518248746274
-284.42037877438315,-57.17533182430935,-0.03860998342519558
-200.95281947641314,-187.79103520142445,-0.3565708992911552
36.38886632255225,227.29109245833388,-0.30245473136624335
-187.0243151370481,268.8683991091802,1.018232838444714
-124.34473431286648,-76.70492336700806,0.2850049673365146
90.76382928263789,-285.7714267183805,-0.1291125719001864
-226.59966988626365,154.41119690869021,-0.4946015831572557
-161.6031456417912,-236.66968719665945,-0.7436319789867107
273.64455012147897,-52.90393434307352,0.5763217898571202
-244.72591279554297,-169.95181806757634,-0.18732159911663293
150.6819096439051,482.82218864782385,0.06740595483129545
194.70262143093305,81.40386945475187,0.3215461599430349
259.6748753213757,-278.5569236570448,0.5083057376846021
188.87337659260893,-70.22292929918295,-0.3021003586977549
135.11872715565175,47.01913875264707,-0.6880896541221462
-315.500998290061,120.39383463822443,0.2605831510040037
216.1305578210986,-11.910907109769502,-0.4121809461874275
27.48891313288604,212.23871191567883,0.033119160704487595
-1.0585274665693463,-97.90523267760119,-0.46081932803210607
181.45400340378868,-278.8470222437006,-0.6080116417710171
-86.33326790180733,-124.17009037613975,-0.26182940159969936
370.4053878330299,-82.68386098302283,0.25254740612141835
188.26593753676474,105.3141194795228,0.5009515391502737
-72.84310692532345,79.67646643507611,0.7370524396310706
182.18188892963926,-83.89702009167218,0.20722712464524526
55.10900070234228,16.375805459692273,0.24903248042082246
-115.90199282544735,126.63167360102095,0.5670251202127454
-257.0731681553632,-38.9792174987206,0.5065894839621761
31.43785173909729,-72.25531041204216,0.0052245081751545125
344.27814471188685,-224.84078109931377,-0.44584092525991553
333.43514817815975,289.17913921108493,0.8237549064560846
15.55417755825435,-5.950006066792649,-1.0326871505683701
534.1189124523255,-31.54370269049019,-0.0492956362948644
217.63251807326264,-88.43175040546559,-0.8874272535315656
-86.92888687619926,-513.755449632484,0.31054800299495544
-515.4576340745077,-162.0478872627234,0.44283195124259006
-34.62485642331086,-55.007685273847216,0.3286379026971889
-184.72830286814846,38.91484740880208,-0.21602453627703086
0.3250204178421916,361.4490898701493,-0.02557149500125872
158.16789073000515,-55.90729172287775,0.20160129723818387
-25.670314570773144,-211.17027687089652,-0.5894419498447487
201.9897054386817,-216.72482699738103,-0.4282796262427587
-10.623026862091322,-268.9800082405645,-0.11396890249534515
-320.384831739384,87.95124782793899,1.090576185904816
77.65832555711937,-97.88337942180209,0.3520378876943824
-94.26458959063207,134.19234850133572,-0.2743070174477924
-163.88866076462247,-124.67774726232352,-0.012497078483514727
-61.43902638245675,-311.3441469560396,-0.3517605863981762
-323.45239639344896,248.91353520291736,-0.13057998980844462
-130.41517195012227,67.73448277544595,-0.19402745761637796
221.65329550257437,113.9560689345775,-1.0993574484203736
380.6783953033001,87.12728466037395,0.2013439122634893
381.85492422162895,627.78600666022,0.5172958343232151
-198.46222084007255,118.26404369475543,0.6172429623647717
233.98666985212196,45.5917490133862,0.6798668724119542
3.9830103332023232,227.07258851038236,-0.1759165693775716
369.62695898622843,-284.1907479183259,1.2073315281355075
12.624729733941823,168.39397805452495,0.29708651891739035
-20.7849734382392,-263.2272563907807,-0.0038824040342600044
-317.8101991822472,-123.13469453211916,-0.017412481753097942
73.9342061026126,168.33933284069002,0.1990497945617509
28.5877149605245,94.10532639540592,-0.014585368806955004
-38.46936792838876,66.48357869123048,0.1884082714625871
-343.7207765805113,-58.46788056295264,-0.32395504415114673
-107.63572049071352,-65.99384100888885,-0.6425879578353997
316.7392162434223,-54.39459933522356,0.39542219821836017
-129.40658476125543,197.68209461345353,-0.3479593872048531
-112.86253555166796,-185.08868565270348,-0.074984907263137
-378.7762670222594,-206.46133725893284,-0.2562408592496883
-149.5376091381814,32.99607821822178,0.16934850807631108
249.8843412172294,-82.95836292232013,-0.09456739926688879
98.59085522101604,65.99070453234198,0.20064290851074792
11.78312650270001,-82.47432319435659,-0.9661922648755064
-369.2931122348371,169.8069826598158,0.34813825031992995
383.3133956743789,181.7427382972982,-0.4375338281263742
-162.90292168727788,-280.5167915097011,-0.46204472806329505
297.50579671220623,-125.08003217397801,-0.5110329143310656
-348.8278473765481,-100.6593535651744,0.5688202772671119
-211.94869722455763,57.53553468066546,-0.25641915542134736
92.33761844485,-233.83102050608647,-0.6908762647203492
221.7765957390515,-149.75699684464493,0.8743818550090972
106.43740104752956,-54.351941338380136,-0.39405285256606953
136.33319129522832,-219.65410352228884,-0.2629460152297243
-605.1037989766528,72.62870151709157,-0.4930620944624238
450.56030842277204,138.09420418698804,-0.407223018327038
-216.44948473926618,-141.25349169989124,-0.1433077957305938
28.519031221219283,11.95213954525963,0.11467655698721979
61.10644345937673,-119.46889385542126,0.17144771816729742
-273.1854014307522,-33.842605828289315,-0.19277349045453954
31.3977972058961,-162.75984985833776,-0.0975132355947744
-130.5115351519423,123.61474536006851,-0.6390410756924276
26.60933185994799,-223.2315496536537,-1.277019165753158
273.3816454778817,-205.99153624212047,-0.2234826827267107
-121.92059867927188,152.02508568995984,0.5191787846154837
47.34875949359875,-156.42828564603138,-0.2108368800182669
-151.4675013455888,-130.60131786704903,-0.37024325759805654
-137.2920466005638,-192.74718066637845,-0.32985450091318436
183.75382990436867,-267.5805777991152,0.16337355200756165
344.37521313385565,102.15158754663449,0.5628801698086053
-81.20147488218907,64.99988339418739,-0.36452109553009426
-344.7891336034852,-185.87687657549182,0.3301595388181907
89.96777999686681,-189.35783157336084,-0.154712139538211
-203.35421823828358,97.37076758904293,-0.22143070636711354
425.7511008864322,-270.0010402829216,-0.5523442171846838
-182.81383314768246,70.56717546670572,0.28260107375240756
8.137548031277083,-179.6252512169445,-0.044115984442033504
156.970566719335,8.999146174111369,-0.5716131143316499
383.7817677121736,-159.0056316200686,0.12622037693793448
-17.176906280668007,30.462289638725316,0.8352557504562246
-160.32958648658942,-133.76551911520696,-0.3586332630176407
1.0467426198275493,159.57152369645596,-0.18845793767420374
121.09844416789947,-172.34085058195754,0.4575117539449944
233.7322621262683,-56.97893434581144,0.27417472806575943
-183.30461356020905,53.09295334881955,0.2426066517575558
-11.581602483997115,-201.0660617247194,0.22866891956461544
99.3088948552769,125.10265992330696,-1.0050837967160424
22.521374556550956,119.80328072120174,0.7459829195345357
185.3860501214975,-193.58020111136628,0.16395182522178844
103.04614255713587,-1.178124451418744,-0.6655811807157721
25.52169746246798,246.17115386230296,-0.5126601835175377
243.68250756941046,44.83240093358861,0.46911827021181235
257.2476287102957,389.8038022518657,-0.30270902637414954
372.5815055639458,-282.16188334051975,0.3125005394654242
91.79535882441219,343.9794085525959,0.7098421990292386
-2.2575987122560517,-78.37682384825155,0.3018359705279102
131.4048556570014,63.19686472186369,0.3607884223803904
37.60665273255125,-300.19504789608544,-0.11850876818177944
-89.42793339801824,-50.42596325941112,0.2299618642142199
313.25197230567454,-69.48592379884408,-0.12000977952639592
-152.92555955647705,264.7376242111022,0.6793076542619222
-227.36329063991866,-378.0612490232669,-0.211988397445573
-456.29778247600194,-160.76489270323853,0.4964695064258387
254.53363878010995,101.91803950293028,-0.03323824068158808
-118.13438226058315,6.4451695058951595,0.2182523275607929
-355.34742463275796,82.52025524849887,0.12501840427430574
38.187791862065936,-27.566349820744406,0.38443639970298693
-4.316694531394365,176.81116487689974,-0.1399678436277788
88.6679324668207,562.3916410179936,-0.06884739463464835
182.4970947452536,-441.1300328118848,0.1302257439712469
-162.3761412613521,408.79632217132433,-0.2922780792769798
-221.80070669489623,-48.7375056340626,-0.6120605746829177
121.88288528811533,-138.6018124280811,0.7628755093396341
-153.11997984303173,61.57469351411874,0.42453042400893226
-0.5109086900296571,184.22444643603407,0.5433113791580536
126.83380258297166,110.1218543245849,-0.024028129605459567
145.58425262909665,-43.49058219373651,-0.15857697603481946
-52.721905436154415,-192.20528622937428,-0.09381380670795456
-83.02643605714891,349.2378574346121,0.21690975259458561
-302.83445374513366,-125.07841654157868,-0.26991823576200846
431.18678312594653,-14.176271562946088,0.5830851596513372
91.21390391677704,41.755043316070605,-1.30106319288453
-156.88496974251768,135.47106443679863,0.34928820432620994
79.955240415982,189.46590605992537,-0.6418562616735312
132.204916022631,16.868120548960384,-0.018517098896938332
116.40092882990531,-123.93142686495227,-0.1921932808239297
65.07993169411623,95.07522313250438,-0.7594645725662205
80.59531038102044,256.2010878330228,-0.9422616653223234
-185.0354121510448,-120.56090218522533,-0.22875868344845637
-37.86310461838274,111.02738855438787,-0.31597626029996523
442.9531108613618,-80.89789255939948,-0.11632346526141
2.9466325718454898,15.769224794062636,-0.8508293922184451
-114.54542663620548,-36.22499793201139,-0.1865220894486876
1.1475964119149185,94.9471110200476,-0.13173266354434224
258.3300322642924,44.17150578761501,-0.23768550598263408
-358.0118066693089,-1.4542334167822626,0.5364846785810801
-279.13021521601354,226.7028371615092,0.39873730532899804
-51.14959346953295,296.2525836972283,0.3049256688394426
102.1114386345999,321.1286975971907,0.21372678559928598
-95.13113296102249,-158.45926160639144,0.6517614206770012
-88.68025356536319,226.45477595082903,-0.9856633220948636
113.99979308588411,-63.28039957184569,0.28868323790691364
149.4320160678788,-167.9576873851565,-0.545817347943135
-339.9393089035415,-108.92683684866134,-0.8197695959955116
-26.428463961621606,33.788461202950884,-0.5009239514343309
-59.89059188410477,-261.8321744960574,0.2653866700634846
5.318038290905855,13.900679049088923,0.10607840697151974
-521.3701502110164,189.96562267250115,0.13095729753987662
356.32279372914957,21.2583050741822,-0.16794699694484874
393.2238814522095,199.4893122599053,0.21560560793936917
-44.3919973512699,-127.74369297155414,-0.1153796531253878
102.39553104518882,271.20535724569976,1.042746386758848
265.02613308435696,-29.334478443555216,-0.4268207047179976
193.35707073454068,295.4450091591406,1.046804673332257
197.88729986586847,125.52101219478298,-0.07877707850589447
-285.9765184526358,298.9390398404134,0.03687087974600531
-64.77014154397371,-450.3498663568374,-0.947971999974539
314.2010720426571,243.44917124899604,0.019382786295560252
382.3650952800712,-91.64179134699145,0.44462847736751426
-40.78240264558271,146.28767705753748,-0.0011708963128406631
81.38633157092427,-103.94925756519879,0.4672213823285175
628.3177152568703,14.206771590216787,-0.04738201881575309
-218.72887375993156,-52.83788611437497,-0.2916250554606133
-234.1708394520031,-144.29135058653046,-0.49846319575556625
525.9637998163821,-114.16832896427678,0.13233991650271462
275.41398209362836,39.211595991274585,-0.2255505038602167
-211.47133566551614,296.30672302790947,-0.11626890509863967
-143.32531477987067,311.8659693607694,0.7101334052256282
234.37238168558255,381.4314139576378,0.026931487993368735
69.95637947188695,163.79323967696286,-0.6291629105859899
252.81130888633095,68.80554158722364,-0.40257481081321944
317.514088670553,-177.46654920585257,-0.007254028667069124
-13.186117167046623,15.345255294268062,-0.57640333065703
-160.62343531063027,286.8804082958104,0.726147324759367
-69.74723620356573,11.97585638822871,-0.4536278009677616
86.05575832265114,-38.17905566751366,0.6626394819260537
386.6806908271478,-181.804061954197,-0.22066475745298392
198.2803056797222,-89.69842028004304,-0.10567895025291767
49.062808352905144,153.1605580116734,-0.9978277839574062
-125.06471767039025,-143.6730737794041,-0.3612098304739951
-87.32731625081351,-130.7333208577429,-0.013849435384908548
-49.97421667161333,-514.702760413493,0.31584879692226087
46.40709024521485,-112.73174676200833,-0.11225558543675963
83.02338248752089,243.797770437928,-0.499576898306299
-49.591467932173025,-299.5921232703289,0.9353674666720271
48.78987741612684,154.27274592605707,0.171037598872813
-112.12926869600845,-33.973657254952926,-0.27369991449353354
41.34197977448286,-280.2169048931799,0.35944260275873513
17.02698614375725,365.07848430550774,0.7632246683062514
-222.1295375175663,208.98898398612272,-0.09408375636344858
366.5866382118922,-106.56105975767183,-0.6375645748449608
-242.71334911958147,-407.62766391719714,0.013027053869455607
133.4597844732032,32.323656172673935,-0.3209523213833048
27.504148099356478,111.76877884830876,0.014620521064959853
-155.90251260788878,173.45787394113012,0.08492532364587718
-202.67345127050854,110.83577963063354,-0.11508069609877676
-95.8548018311977,-279.87143756082804,-0.16621373726327346
17.86670088893129,395.0411280669144,-0.1812079765331951
-154.7579756381827,280.1113316765188,-0.023182429317177514
-98.79082875838971,-32.67695508976218,-0.02254724809088219
-35.211108369402126,-86.41297624414602,-0.38834320113588655
108.03473162166888,190.29297213800243,-0.01412293811928277
-18.85024145338531,-16.655051915544526,-0.4093066918777871
-17.302445590016003,84.32573390483296,-0.20828990136099584
-231.56651871241075,193.65082025954158,-0.1182688986856625
6.7665551582429355,146.95764348828504,-0.45819648774064237
183.35348664564137,-317.66588323569965,0.7918387455904531
-430.2821861781336,-194.33214843280334,-0.06811289894470884
10.096840808097566,89.59774139953187,0.28823756429397285
314.1290168606656,-102.94379472738586,0.37570559520695856
-14.972251091626529,-28.758475813027434,-0.9905821614941832
158.15121573899768,147.62585494815357,0.6456148822978172
-117.64480909997354,139.5646883072024,0.016830368381410117
-126.2464799201879,154.9121975332352,0.13879697724113293
84.09772624939413,-67.70798253204327,-0.351372738518303
274.8814073071864,202.9684623409063,-0.5065778480214808
-172.6145066012027,-84.38219383992788,-0.29063167909393023
331.2334857328735,-222.65033156265144,-0.7371516033555697
145.27310300784828,91.10654480968594,-0.6840175942113005
78.66188524529076,229.32577023051869,-0.21888505533531502
-98.44642848821911,26.024095605555896,-0.6826925440751274
-22.61617492994042,167.5973133213052,-0.41804461309192864
168.6578454622784,-45.01046845388398,0.09226299256231936
6.391862550233035,115.94141945255913,0.160154118694314
-309.83078246780195,74.08274994546579,0.07286226868995349
-95.2269314213571,-342.9366292382719,-0.5471101978268612
21.603083346592914,138.71097194534937,-0.2861259287531093
137.3254477665302,6.085162729179997,1.6921961803578114
200.6826142015451,-4.003123685743719,-0.11188965600669197
173.7425410892306,1.6933113363854124,-0.8684662856629664
-38.17593605031922,-115.19975955424364,0.03987368370838155
-164.51847100845436,-323.2600852943863,0.4503173008071897
25.515613327273833,-258.61101212708485,0.23617021025690668
277.3282285918697,184.4031254777561,0.062070057808814805
-174.86965790771066,-70.49395240101927,1.0535899642204751
43.700759110962416,165.34401092961878,-0.7589960129062278
513.2116360812363,-65.43787077291881,-0.07487770008448118
65.17446307320301,-47.73696923059981,0.3153563437004836
-1.21726001836603,-135.99504852699255,0.22297596853094812
-283.7858264180919,297.28371032234315,0.015005471127721793
43.76859428869326,0.6938564542385056,0.7580983154635461
22.822074940589847,306.72747275035886,0.2686473147379741
538.8458642504878,-166.59711545807303,0.6977494739966943
-35.896623758259146,166.0119299127672,0.497499029404872
351.85289644133894,102.05321638251681,0.6543611957003039
61.29027071056342,-140.55559194765715,-0.4793415794560011
84.66591952203666,-380.7866187772836,-0.3704551577639227
236.5354382859697,-363.92174036505736,-0.29092295875811053
-118.5504342903442,-189.1342258589306,-0.1066214619563745
-17.255085896056755,-92.27323763927319,-0.0003653616695462176
110.65706282544399,97.45808268838043,-0.34831570225604525
-100.73672947950121,-196.34336985971822,0.5771918480021107
-24.552335821598675,210.06513476284186,-0.24542232400825376
29.875023417216195,256.4656263830781,-0.03740571878651418
-5.1436586642431195,-221.71900572334445,-0.3956770722276786
-90.51323862541653,-213.28244673337076,0.7001412224042197
-91.45096454634617,220.70688009863613,-0.1042774781025594
278.7161137628361,-19.398771720870904,-0.03684065635197071
147.92938542438964,-161.71372097723395,-0.17300517982478217
-226.68225856334408,-231.9254187160923,-0.9991126575010343
-186.46323114429188,56.221071250031564,1.0145730898843102
191.96778329368632,-110.98911527685105,-0.8795955944818789
-120.07410866793522,160.59605433506454,0.05706861744947315
-61.986321507459806,53.3974928951798,0.9652809386601756
-164.08157878955046,-174.11303190581557,-0.07738415888111397
474.10435751157587,193.48229149136844,0.2898432634975346
336.27002501345726,-432.92097359019994,0.4415834970455707
362.10159688998203,204.1691796122148,-0.5921485224377774
89.5268826270287,-199.9285644635556,-0.615649795428651
-138.9280266823455,60.24693612194729,0.31296444328060363
250.2181318803161,-82.14907615692965,-0.5428420579129226
471.9887848215207,230.17192901267785,-0.09134862862236154
438.79887223264484,94.59180298458611,-1.002499765272624
-76.0261768561623,201.01607326538607,0.6746247300759309
221.2231528379776,-76.61306706955119,-1.7016201741855712
414.96950153285576,-119.00744661784097,-0.7133698230431914
253.98528264347254,-91.63051490434484,0.2656831966288544
-200.75825677526237,-36.576093564838054,-0.17266970796731754
22.158516613940783,-233.42759908340528,-0.2425542449796446
-199.93160971196687,171.58632439982748,-0.02583212111354281
-345.24295710964356,45.55198261462268,0.7033853512330575
264.61180305210684,89.06875789931037,-1.2284707607828929
-118.85525841723361,46.90686016086165,-0.01698477303375217
76.18505884074723,-139.24471697241853,0.7925237481369409
-13.705458088554048,41.09820244228439,-1.1125249659222949
-37.31220275270915,128.38223075959817,0.5708254709898216
-62.304306131666046,257.5796874002063,-0.10229502745500141
-216.7993779825153,271.46338619876,-0.38595991534166735
-407.086485190585,132.8395017616212,-0.47127263445779294
226.12205394832446,-45.1042167714048,-0.3426091295841141
-117.01771684987084,-186.1144136035698,0.07374669528482944
282.5596593218738,192.05050943553744,-0.3651052048843735
-310.56446442381247,-341.2313291603107,-0.9559371462766729
60.270326337996,207.51002673579416,0.8110982204941359
-92.7326477334963,-138.65742187892968,0.24410715448171122
-129.25438190037409,-8.331892830326991,0.2987730121835837
-4.043742559771143,37.84208880051751,-0.7327939370300389
-55.29639987567491,-235.2764567763137,-0.2673707159136881
-113.33839044364804,281.4604298500905,0.5496484547780063
-161.3398115270176,60.24775029604383,0.18611113745433816
-116.96341093275313,47.89728248797658,-1.0913514369802881
77.22997453186326,-307.8970935969199,1.4032713948031013
-27.965476360562953,17.304551817438867,-0.5395057558366868
-125.92831145580607,150.96958542672812,-0.7539543560393532
86.51448574651802,-104.38120897144839,-0.38180629168396546
62.87240359120364,-11.221384530157989,0.41601670071695973
0.19281335026288768,302.2346016011176,0.31499726238417847
89.55636149519279,-145.81442569705226,0.32086297629847177
373.0763026342679,168.1504743375721,0.6370932903516014
190.35581744590363,163.84126422219381,0.1451821710815381
-61.299574453430594,176.7290337031621,0.25071576439415016
292.1686067517466,-280.09126498877055,-0.21919457148670565
-115.12671956121845,280.572506931151,-0.41993000500368927
-315.55432761080453,88.29255750899546,-0.347663949504029
193.50294687538224,-110.22158129347228,0.2809552240696527
21.64737983492056,-275.24404942524205,0.34327449735851134
-230.00680622348435,-111.76083720658525,0.7173154883961683
50.22032131043961,-369.4528871224596,0.21407118341415302
-187.13893056668894,-8.832188749016634,-0.388305326445153
442.48532602214306,-53.725364675983364,0.04731482940252635
191.6743612974932,199.93187953177122,-0.4110022591694381
160.08567365622594,-385.4692960162211,0.46384871139407796
-58.30527045175368,-36.33314080203976,0.49580308303176157
-108.4106837552093,-141.0908697987028,-0.20632173738019605
-165.35873959834652,310.8822053306443,-0.04671318605891981
-197.44969196925297,121.8534172985332,0.38988395419740357
-302.0302883883261,-244.4354280274672,-0.1163615304225496
-53.6014831123649,-527.8200030873463,-0.9074647860281931
-117.02478364264881,-185.55996940816183,-0.16225151654364847
-164.23221848213137,-31.22613594214591,0.7175098299068987
316.8825158027296,-175.71972564252613,0.9207288416016435
-66.20377908384144,-117.30316803258924,0.2345206720046217
-180.45673836888344,23.126584474269464,0.09737002968891202
164.69255269225198,184.28592974436867,1.0594708592278812
-109.41944054142756,-106.94518420772485,0.7835011098979079
59.849527909441925,57.27393076176711,-0.05985966694235781
-23.31570658675106,-177.38098518762843,-0.06476003312068024
375.40270285164934,16.763213700999206,0.23487260021913897
-154.38969336226634,67.78262183914453,0.41617021777921986
-120.33264184082233,-38.40422224905386,0.2738464714123843
-72.34607669452943,-203.77078736204516,0.2794768234236052
-217.55129650177176,-228.88328915316572,-0.07150403778862027
408.8514520292097,-225.82613438490364,0.192724481779746
-291.21250648095327,240.5686958946435,-0.5455437238660994
-14.410209142134134,-190.12898168420492,-0.8653328254788366
-287.9805034488698,-289.2379021018252,-0.1475934479814032
28.924158974115066,-44.753796175702725,0.23095315935320432
414.23343803262406,-130.86498717581586,1.147159022694684
-19.587641592002523,200.89316651998118,0.8125891666445365
-36.12798359890977,33.11001323005299,-0.8159261940859884
72.3108187599655,-416.87152949520356,-0.36413856181783655
192.61014809753794,-117.71394876907951,0.056314349676195107
62.96035954812452,-15.779942844374098,-0.6008517178535001
-178.57678464903165,163.98174067955014,0.3595553891483337
61.08636969947339,-70.45211358297382,0.4229732705412262
-22.193429031862326,-707.3176205752039,-0.055909110794657386
-248.626296984492,2.017872839728367,-0.42502318246549553
-313.24910232702666,11.272378730995177,1.1086957816324814
-58.30212031406637,-121.74110581562363,-0.6641249123071493
42.04298323699244,-351.6253092717189,-0.22485413977722093
404.253788934138,124.31400740804992,-0.8309515070113594
-101.25189857017406,-338.4035822911091,0.5108656250197607
-297.8892037959438,-247.67896348256335,0.4420120256526634
6.651425436958689,-206.13615406590333,-0.08360882083063517
41.13957658798208,376.80313465941845,-1.1876138442337898
118.85916249581472,154.09566571335523,-0.2335864097125423
67.57366569237716,-25.094524029391252,-0.6337618274700065
-279.52770823768367,73.5805149008618,0.5165451232248706
447.8188676845554,37.38892483112461,0.38518301909705127
66.97479091960236,196.7764251435711,-0.0553780232260117
-3.3871417593860595,163.95269087436674,0.43832425763584315
-174.65672656266304,-130.38387961058484,-1.0738714829821476
-279.9659049262407,551.7373888074789,0.33581749515029896
-68.66421915978823,62.77335231788462,-0.5635271349473387
-53.22064186343973,-281.03800760253245,0.04980549844405813
-102.54377525820667,226.17530533555663,0.5959501757580995
-76.56666117774233,-481.43420308624803,0.13139831164749638
310.65477555239596,-52.960252688050545,0.312220093922038
-24.790762130494677,17.453614380250983,-0.07769781487615919
5.839788537474814,-34.525586906091426,-0.4566992319273995
-107.55599534961206,265.47395893234693,-0.24826483655410736
86.28090567681727,-257.52603367569617,0.04929151233601166
330.87464101528525,77.87899480322565,-0.6525345627961431
-100.57729648179281,181.09921627683053,0.7394744492069667
-305.4194796486347,-101.83592565306586,-0.1928102750298781
-390.87523997049055,169.94388162794894,-0.4113240554092825
-26.11776818456028,163.92011124380502,0.5929949279716417
136.68107417727572,228.20635987558316,0.488174927170794
115.90158581860254,-190.42757826725148,0.013455125516395971
-156.93493668016995,-60.365842871624096,0.1319869672738977
-159.1564143557709,-79.43695273191275,0.19083149076163702
-141.64481356844485,182.61318739349016,0.5101174868134734
-17.60911068443842,534.4898565701894,-0.2909387667530346
39.75378300021538,-125.70722080336701,0.0640979136097354
300.00876727321406,-30.149439797800653,-0.03483705835407569
-218.94710191902348,-174.78120064552826,-0.4719285325966978
222.96097940502523,271.9385178507336,0.15402521567776636
-110.44148960414533,48.25496707778878,-0.6026715530804351
158.92138602861047,-155.4488426908464,1.1685653670030445
15.28231351258443,91.38164790198825,0.3388502952327418
-4.37250527156611,44.578130821089424,-0.3874678696764898
-153.34239267316192,329.7275631580844,0.23988852612691242
122.8543538232842,-179.46259166099222,0.47905291508109193
-71.84336784762422,-253.59312305289254,0.03503413181470062
84.88250573293699,-283.02151857672106,-0.21000434015930267
68.99807949240214,93.01237685048082,0.2061165767792903
-327.5396721891372,141.82421681200788,-0.13452697024082072
51.41275977390109,179.04623044478433,-0.27352892036252235
151.76945689015034,-99.73890715199774,-0.3289060319341665
-29.608395642357905,78.42358046871783,0.5696477996708725
-25.585650105509234,-288.4683072427463,-0.14346131300867476
-0.15231406765003822,414.3510998419342,0.23222944139907323
401.43985315749956,-132.27194377398547,-0.1380819872419714
141.1499547143116,-212.47848033014512,-1.4359086674193897
213.07102167521305,-78.54815764812972,-0.8354330781874303
8.548450968792167,-23.13306877341404,0.3932788539224668
286.1463492988791,100.55450683374931,1.6242472363024485
-60.64436626584987,-151.41785386680405,0.27070340275204446
504.3634158404738,-125.1321277256527,-0.4233469914713331
266.10781788940227,-105.43339665100761,-1.0030303461068875
-301.8629038904864,273.9652013186008,0.2681605636719371
-231.6468505929347,160.0662166519867,-0.6084762380052021
-260.15836779579075,-41.62586457977084,-0.5099778838069432
33.6508359828005,217.0253064712635,-0.45141021357382
143.5524285543207,79.43472458311105,-0.4639487626592189
-171.29174567099184,-84.60895630051843,0.2849105593764524
285.25980125434296,126.18288598136964,0.33492402793496023
178.427856555414,598.3452000294658,-0.30851918176931886
-34.173424796184676,440.1852405968332,-0.04498051835359898
-404.4180778514308,277.25312461072735,0.25664200360613876
49.304175957175794,-222.0821216894667,0.6125617746779428
-94.63232022786163,76.71846602069891,0.26365994443647467
-189.0672841407021,160.8254805384855,-0.8399159117146652
1.0018368880653556,57.11009641846254,-1.006761191509626
110.30129516727118,-137.45670458532092,-0.3044443745496962
96.51276805041236,237.2050996158415,-0.459712344242593
39.168736568238415,-165.70232765118394,-0.705557439842751
52.29553035779799,-148.96778450261127,-0.13715580545774395
-13.217916136208316,171.32852589470102,0.4430764198355985
171.38673374203424,310.9803267493053,-0.09601835206511632
-4.99900654498633,-47.08432461132133,-0.4491903068706756
-347.38624069505937,-21.354326493931904,0.35816251759350864
-205.52451997035394,-32.20672601023434,1.1153501381405024
188.92535142594465,26.676299558472206,-0.42446048914124146
98.82395018675238,130.95815784489352,1.576691602342009
330.9883535305769,445.49321779797,0.2574653468781592
-35.86981577945648,46.57630373904145,-0.04336953593925846
-183.54187446031918,61.954230793315304,0.029836854843418078
18.262225655268754,-176.01959379833332,-0.1952465521627275
195.9772158462536,-106.18013106593567,0.6116066912225152
-113.43853853434183,-90.23270436019327,-0.4077697953721872
89.59191650442621,-298.5128278256538,0.020570252808919307
34.488289258736536,186.8127230353615,0.6568609523910859
-347.1428495138263,299.6948666968057,0.5608342125299461
293.11894315949576,566.8363840538482,-0.6261975892377223
-59.57409983678572,107.44725268883941,-0.48246981772218883
